# .PCD v0.7 - Point Cloud Data file format
VERSION 0.7
FIELDS x y z rgb
SIZE 4 4 4 4
TYPE F F F F
COUNT 1 1 1 1
WIDTH 944
HEIGHT 1
VIEWPOINT 0 0 0 1 0 0 0
POINTS 944
DATA ascii
-0.60542047 -1.9555492 -5.7220459e-06 1.3829344e-38
-0.59540522 -1.9562197 -7.5817106e-06 1.3829344e-38
-0.58450794 -1.9548833 -7.3194506e-06 1.3829344e-38
-0.57449198 -1.9555514 -7.4505806e-06 1.3829344e-38
-0.56565505 -1.9555514 -7.4505806e-06 1.3829344e-38
-0.55972296 -1.958892 -8.1062317e-06 1.3829344e-38
0.55948532 -1.9588914 -7.5101852e-06 1.3829344e-38
0.56547022 -1.9555507 -6.6757202e-06 1.3829344e-38
0.57430756 -1.955552 -7.8082085e-06 1.3829344e-38
0.58433378 -1.954883 -6.8187715e-06 1.3829344e-38
0.59521019 -1.95622 -7.8916546e-06 1.3829344e-38
0.60523635 -1.9555507 -6.7055225e-06 1.3829344e-38
0.61525553 -1.9548829 -6.8426134e-06 1.3829344e-38
0.62511683 -1.9555508 -6.7651272e-06 1.3829344e-38
0.63498545 -1.9562184 -6.6041948e-06 1.3829344e-38
0.64500254 -1.9555507 -6.7949295e-06 1.3829344e-38
0.65501201 -1.9548823 -6.3419343e-06 1.3829344e-38
0.66488314 -1.9555514 -7.212162e-06 1.3829344e-38
0.67476118 -1.9562187 -6.7234041e-06 1.3829344e-38
0.68476886 -1.9555514 -7.301569e-06 1.3829344e-38
0.69476861 -1.9548824 -6.4611436e-06 1.3829344e-38
0.70569801 -1.9562194 -7.4148179e-06 1.3829344e-38
0.71569777 -1.9555506 -6.5863132e-06 1.3829344e-38
0.72453523 -1.9555519 -7.7784061e-06 1.3829344e-38
0.73452526 -1.9548826 -6.5803529e-06 1.3829344e-38
0.74547368 -1.9562194 -7.5578691e-06 1.3829344e-38
0.75546408 -1.955551 -7.0929527e-06 1.3829344e-38
0.76430118 -1.9555515 -7.390976e-06 1.3829344e-38
0.7742821 -1.9548833 -7.1525574e-06 1.3829344e-38
0.78524923 -1.9562193 -7.3432921e-06 1.3829344e-38
0.79523045 -1.9555516 -7.5697899e-06 1.3829344e-38
0.8052038 -1.9548829 -6.7949295e-06 1.3829344e-38
0.81511086 -1.9555517 -7.5399876e-06 1.3829344e-38
0.8250252 -1.9562199 -7.8439716e-06 1.3829344e-38
0.83499658 -1.9555517 -7.6293945e-06 1.3829344e-38
0.84496039 -1.954883 -6.8902968e-06 1.3829344e-38
0.85487723 -1.9555522 -8.1062317e-06 1.3829344e-38
0.8648001 -1.9562184 -6.4611436e-06 1.3829344e-38
0.87476277 -1.9555516 -7.6591969e-06 1.3829344e-38
0.88471669 -1.9548824 -6.3419343e-06 1.3829344e-38
0.89464295 -1.9555513 -7.2419643e-06 1.3829344e-38
0.904576 -1.956219 -6.9856642e-06 1.3829344e-38
0.91452849 -1.9555509 -6.8843365e-06 1.3829344e-38
0.92447358 -1.954883 -6.9141388e-06 1.3829344e-38
0.93551242 -1.9562185 -6.6280363e-06 1.3829344e-38
0.94545776 -1.955551 -7.0333481e-06 1.3829344e-38
0.95539558 -1.9548833 -7.2479247e-06 1.3829344e-38
0.96533847 -1.9555515 -7.5101852e-06 1.3829344e-38
0.97528839 -1.9562191 -7.1287154e-06 1.3829344e-38
0.98522425 -1.9555516 -7.5101852e-06 1.3829344e-38
0.99515212 -1.954883 -7.0333481e-06 1.3829344e-38
1.0051049 -1.9555521 -8.0168247e-06 1.3829344e-38
1.0150638 -1.9562187 -6.8426134e-06 1.3829344e-38
1.0249906 -1.9555522 -8.0168247e-06 1.3829344e-38
1.0349088 -1.9548832 -7.2479247e-06 1.3829344e-38
1.0448706 -1.9555516 -7.5697899e-06 1.3829344e-38
1.0548398 -1.9562193 -7.3432921e-06 1.3829344e-38
1.0647562 -1.9555513 -7.1823597e-06 1.3829344e-38
1.0746655 -1.9548836 -7.4148179e-06 1.3829344e-38
1.0846369 -1.9555517 -7.6293945e-06 1.3829344e-38
1.0946157 -1.9562199 -7.8678131e-06 1.3829344e-38
1.1055872 -1.9548836 -7.4863433e-06 1.3829344e-38
1.1155659 -1.9555515 -7.390976e-06 1.3829344e-38
1.1244028 -1.9555511 -7.1823597e-06 1.3829344e-38
1.1343911 -1.9562197 -7.5578691e-06 1.3829344e-38
1.1453433 -1.9548824 -6.508827e-06 1.3829344e-38
1.1553321 -1.9555514 -7.4207783e-06 1.3829344e-38
1.1653273 -1.956219 -6.8902968e-06 1.3829344e-38
1.1752182 -1.9555521 -7.9274178e-06 1.3829344e-38
1.1851001 -1.9548826 -6.6518783e-06 1.3829344e-38
1.1950983 -1.9555516 -7.5101852e-06 1.3829344e-38
1.205103 -1.9562191 -7.0333481e-06 1.3829344e-38
1.2149837 -1.9555511 -7.1227551e-06 1.3829344e-38
1.2248571 -1.9548832 -7.1763993e-06 1.3829344e-38
1.2348648 -1.9555522 -8.0168247e-06 1.3829344e-38
1.244879 -1.9562194 -7.5578691e-06 1.3829344e-38
1.255779 -1.9548838 -7.5817106e-06 1.3829344e-38
1.2657938 -1.9555517 -7.6889992e-06 1.3829344e-38
1.2746303 -1.9555511 -7.1525574e-06 1.3829344e-38
1.2846551 -1.95622 -7.9631809e-06 1.3829344e-38
1.2955353 -1.9548832 -6.9856642e-06 1.3829344e-38
1.30556 -1.9555519 -7.7784061e-06 1.3829344e-38
1.3143964 -1.9555513 -7.1525574e-06 1.3829344e-38
1.3244308 -1.9562203 -8.1300732e-06 1.3829344e-38
1.3352921 -1.9548833 -7.1763993e-06 1.3829344e-38
1.3453262 -1.955552 -7.8380108e-06 1.3829344e-38
1.3541627 -1.9555513 -7.2419643e-06 1.3829344e-38
1.3642069 -1.9562209 -8.6307527e-06 1.3829344e-38
1.3750484 -1.954883 -6.9379807e-06 1.3829344e-38
1.3850913 -1.9555506 -6.5267086e-06 1.3829344e-38
1.3951412 -1.9562175 -5.7697298e-06 1.3829344e-38
1.4059694 -1.9548817 -5.8650971e-06 1.3829344e-38
1.4160198 -1.9555497 -5.8412552e-06 1.3829344e-38
1.4248563 -1.9555489 -5.3346157e-06 1.3829344e-38
1.4327849 -1.9566628 -5.8412552e-06 1.3829344e-38
-1.3824427 -1.9455624 -5.8412552e-06 1.3829344e-38
-1.3736373 -1.9455624 -5.6028366e-06 1.3829344e-38
-1.364832 -1.9455624 -5.6028366e-06 1.3829344e-38
-1.3560268 -1.9455624 -5.6028366e-06 1.3829344e-38
-1.3450202 -1.9455624 -5.6028366e-06 1.3829344e-38
-1.3340136 -1.9455624 -5.6028366e-06 1.3829344e-38
-1.3252083 -1.9455624 -5.6028366e-06 1.3829344e-38
-1.316403 -1.9455624 -5.6028366e-06 1.3829344e-38
-1.3053964 -1.9455624 -5.6028366e-06 1.3829344e-38
-1.2943897 -1.9455621 -5.6028366e-06 1.3829344e-38
-1.2855843 -1.9455621 -5.6028366e-06 1.3829344e-38
-1.2745777 -1.945562 -5.6028366e-06 1.3829344e-38
-1.2635711 -1.9455621 -5.6028366e-06 1.3829344e-38
-1.2547659 -1.9455621 -5.6028366e-06 1.3829344e-38
-1.2459606 -1.9455621 -5.6028366e-06 1.3829344e-38
-1.234954 -1.945562 -5.6028366e-06 1.3829344e-38
-1.2239473 -1.945562 -5.364418e-06 1.3829344e-38
-1.215142 -1.945562 -5.364418e-06 1.3829344e-38
-1.2063367 -1.945562 -5.364418e-06 1.3829344e-38
-1.1953301 -1.945562 -5.364418e-06 1.3829344e-38
-1.1843235 -1.945562 -5.364418e-06 1.3829344e-38
-1.1755183 -1.945562 -5.364418e-06 1.3829344e-38
-1.1645108 -1.9455606 -4.2120614e-06 1.3829344e-38
-1.1535025 -1.9455578 -1.7881393e-06 1.3829344e-38
-1.1446972 -1.9455578 -1.6689301e-06 1.3829344e-38
-1.1358919 -1.9455578 -1.6689301e-06 1.3829344e-38
-1.1248853 -1.945558 -1.6689301e-06 1.3829344e-38
-1.1138787 -1.9455578 -1.6689301e-06 1.3829344e-38
-1.1050735 -1.9455578 -1.6689301e-06 1.3829344e-38
-1.0962682 -1.9455578 -1.6689301e-06 1.3829344e-38
-1.0852631 -1.9455605 -3.9736428e-06 1.3829344e-38
-1.0742573 -1.9455615 -5.0067902e-06 1.3829344e-38
-1.065452 -1.9455615 -5.0067902e-06 1.3829344e-38
-1.0544454 -1.9455615 -5.0067902e-06 1.3829344e-38
-1.0434388 -1.9455615 -5.0067902e-06 1.3829344e-38
-1.0346335 -1.9455615 -5.0067902e-06 1.3829344e-38
-1.0258282 -1.9455615 -5.0067902e-06 1.3829344e-38
-1.0148216 -1.9455615 -5.0067902e-06 1.3829344e-38
-1.0038149 -1.9455614 -4.9471855e-06 1.3829344e-38
-0.9950096 -1.9455614 -4.8875809e-06 1.3829344e-38
-0.98620433 -1.9455614 -4.8875809e-06 1.3829344e-38
-0.97519773 -1.9455614 -4.8875809e-06 1.3829344e-38
-0.96419114 -1.9455614 -4.8875809e-06 1.3829344e-38
-0.95538378 -1.9455574 -1.4305115e-06 1.3829344e-38
-0.9465785 -1.9455574 -1.4305115e-06 1.3829344e-38
-0.93557197 -1.9455572 -1.4305115e-06 1.3829344e-38
-0.92456728 -1.9455612 -4.6491623e-06 1.3829344e-38
-0.91576201 -1.9455612 -4.6491623e-06 1.3829344e-38
-0.90475541 -1.9455611 -4.6491623e-06 1.3829344e-38
-0.89374882 -1.9455612 -4.6491623e-06 1.3829344e-38
-0.88494354 -1.9455612 -4.6491623e-06 1.3829344e-38
-0.87613827 -1.9455612 -4.6491623e-06 1.3829344e-38
-0.86513168 -1.9455611 -4.6491623e-06 1.3829344e-38
-0.85412502 -1.9455611 -4.5895576e-06 1.3829344e-38
-0.84531975 -1.9455609 -4.529953e-06 1.3829344e-38
-0.83651447 -1.9455609 -4.529953e-06 1.3829344e-38
-0.82550788 -1.9455609 -4.529953e-06 1.3829344e-38
-0.81450129 -1.9455609 -4.529953e-06 1.3829344e-38
-0.80569601 -1.9455609 -4.529953e-06 1.3829344e-38
-0.79468942 -1.9455609 -4.529953e-06 1.3829344e-38
-0.78368276 -1.9455609 -4.529953e-06 1.3829344e-38
-0.77487743 -1.9455609 -4.4107437e-06 1.3829344e-38
-0.76607299 -1.945563 -6.1988831e-06 1.3829344e-38
-0.7550661 -1.9455624 -5.6028366e-06 1.3829344e-38
-0.74405897 -1.9455609 -4.4107437e-06 1.3829344e-38
-0.73525369 -1.9455609 -4.4107437e-06 1.3829344e-38
-0.72644842 -1.9455609 -4.4107437e-06 1.3829344e-38
-0.71544188 -1.9455609 -4.4107437e-06 1.3829344e-38
-0.70443517 -1.9455607 -4.1723251e-06 1.3829344e-38
-0.69562989 -1.9455607 -4.1723251e-06 1.3829344e-38
-0.6846233 -1.9455608 -4.1723251e-06 1.3829344e-38
-0.67361671 -1.9455607 -4.1723251e-06 1.3829344e-38
-0.66481143 -1.9455607 -4.1723251e-06 1.3829344e-38
-0.65600616 -1.9455607 -4.1723251e-06 1.3829344e-38
-0.64499956 -1.9455608 -4.1723251e-06 1.3829344e-38
-0.63399291 -1.9455606 -4.1723251e-06 1.3829344e-38
-0.62518764 -1.9455605 -4.1723251e-06 1.3829344e-38
-0.61638236 -1.9455605 -4.1723251e-06 1.3829344e-38
-0.60537577 -1.9455605 -4.1723251e-06 1.3829344e-38
-0.59436917 -1.9455605 -4.1723251e-06 1.3829344e-38
-0.5855639 -1.9455605 -4.1723251e-06 1.3829344e-38
-0.5745573 -1.9455605 -4.1723251e-06 1.3829344e-38
-0.56355071 -1.9455605 -4.1723251e-06 1.3829344e-38
0.56352532 -1.9455638 -6.9737434e-06 1.3829344e-38
0.57453245 -1.9455656 -8.384387e-06 1.3829344e-38
0.58553851 -1.9455636 -6.7949295e-06 1.3829344e-38
0.59434438 -1.9455657 -8.5830688e-06 1.3829344e-38
0.60535055 -1.9455639 -7.1922937e-06 1.3829344e-38
0.61635756 -1.9455656 -8.4638596e-06 1.3829344e-38
0.6251626 -1.9455646 -7.7486038e-06 1.3829344e-38
0.63396794 -1.9455647 -7.7486038e-06 1.3829344e-38
0.64497447 -1.9455646 -7.5499215e-06 1.3829344e-38
0.65598118 -1.9455646 -7.7486038e-06 1.3829344e-38
0.66478646 -1.9455646 -7.7486038e-06 1.3829344e-38
0.67359179 -1.9455647 -7.8082085e-06 1.3829344e-38
0.68459845 -1.9455649 -7.9075498e-06 1.3829344e-38
0.69560498 -1.9455647 -7.7486038e-06 1.3829344e-38
0.70441025 -1.9455646 -7.7486038e-06 1.3829344e-38
0.71541691 -1.9455649 -7.8678131e-06 1.3829344e-38
0.7264235 -1.9455646 -7.6293945e-06 1.3829344e-38
0.73522842 -1.9455636 -6.8545341e-06 1.3829344e-38
0.74403453 -1.9455657 -8.6426735e-06 1.3829344e-38
0.75504041 -1.9455639 -7.1128211e-06 1.3829344e-38
0.76604772 -1.9455656 -8.4638596e-06 1.3829344e-38
0.77485263 -1.9455646 -7.7486038e-06 1.3829344e-38
0.78365797 -1.9455647 -7.8082085e-06 1.3829344e-38
0.79466462 -1.9455647 -7.8280764e-06 1.3829344e-38
0.8056711 -1.9455645 -7.6293945e-06 1.3829344e-38
0.81447649 -1.9455647 -7.8082085e-06 1.3829344e-38
0.82548314 -1.9455649 -7.8280764e-06 1.3829344e-38
0.83648962 -1.9455646 -7.6293945e-06 1.3829344e-38
0.84529495 -1.9455646 -7.7486038e-06 1.3829344e-38
0.85410035 -1.9455647 -7.8082085e-06 1.3829344e-38
0.86510688 -1.9455646 -7.6691313e-06 1.3829344e-38
0.87611347 -1.9455646 -7.7486038e-06 1.3829344e-38
0.88491839 -1.9455638 -6.9737434e-06 1.3829344e-38
0.89372456 -1.9455659 -8.6426735e-06 1.3829344e-38
0.9047305 -1.9455639 -7.2320304e-06 1.3829344e-38
0.91573781 -1.9455657 -8.5830688e-06 1.3829344e-38
0.92454267 -1.9455647 -7.8082085e-06 1.3829344e-38
0.93554932 -1.9455649 -7.8280764e-06 1.3829344e-38
0.94655585 -1.9455646 -7.6889992e-06 1.3829344e-38
0.9553616 -1.9455657 -8.5830688e-06 1.3829344e-38
0.96416646 -1.9455646 -7.7486038e-06 1.3829344e-38
0.97517329 -1.9455652 -8.225441e-06 1.3829344e-38
0.98617959 -1.9455646 -7.7486038e-06 1.3829344e-38
0.99498498 -1.9455647 -7.7486038e-06 1.3829344e-38
1.0037904 -1.9455647 -7.8082085e-06 1.3829344e-38
1.0147966 -1.9455643 -7.5101852e-06 1.3829344e-38
1.0258034 -1.9455646 -7.7486038e-06 1.3829344e-38
1.0346082 -1.9455638 -6.9737434e-06 1.3829344e-38
1.0434146 -1.9455659 -8.7022781e-06 1.3829344e-38
1.0544204 -1.9455639 -7.1922937e-06 1.3829344e-38
1.0654278 -1.9455657 -8.5830688e-06 1.3829344e-38
1.0742326 -1.9455647 -7.8678131e-06 1.3829344e-38
1.0852399 -1.9455661 -8.8214874e-06 1.3829344e-38
1.0962458 -1.9455646 -7.7486038e-06 1.3829344e-38
1.1050518 -1.9455657 -8.5830688e-06 1.3829344e-38
1.1138566 -1.945565 -7.9870224e-06 1.3829344e-38
1.1248631 -1.9455652 -8.066495e-06 1.3829344e-38
1.1358696 -1.9455646 -7.7486038e-06 1.3829344e-38
1.144675 -1.9455647 -7.8082085e-06 1.3829344e-38
1.1534803 -1.9455647 -7.8678131e-06 1.3829344e-38
1.1644868 -1.9455646 -7.7088671e-06 1.3829344e-38
1.1754935 -1.9455647 -7.8082085e-06 1.3829344e-38
1.1842983 -1.9455638 -7.0333481e-06 1.3829344e-38
1.1953057 -1.9455653 -8.2651777e-06 1.3829344e-38
1.2063113 -1.9455637 -6.9141388e-06 1.3829344e-38
1.2151179 -1.9455657 -8.6426735e-06 1.3829344e-38
1.2239227 -1.945565 -7.9870224e-06 1.3829344e-38
1.2349298 -1.9455658 -8.6228056e-06 1.3829344e-38
1.2459358 -1.9455646 -7.7486038e-06 1.3829344e-38
1.2547418 -1.9455659 -8.6426735e-06 1.3829344e-38
1.2635465 -1.945565 -7.9870224e-06 1.3829344e-38
1.2745534 -1.9455653 -8.3049135e-06 1.3829344e-38
1.2855597 -1.9455647 -7.8082085e-06 1.3829344e-38
1.294365 -1.945565 -7.8678131e-06 1.3829344e-38
1.3053714 -1.9455646 -7.7088671e-06 1.3829344e-38
1.3163781 -1.9455647 -7.8082085e-06 1.3829344e-38
1.3251835 -1.9455647 -7.8082085e-06 1.3829344e-38
1.3339882 -1.945564 -7.1525574e-06 1.3829344e-38
1.3449955 -1.9455649 -8.066495e-06 1.3829344e-38
1.356002 -1.9455647 -7.7486038e-06 1.3829344e-38
1.3648081 -1.9455659 -8.7618828e-06 1.3829344e-38
1.3736128 -1.945565 -7.9870224e-06 1.3829344e-38
1.3846202 -1.9455662 -8.90096e-06 1.3829344e-38
1.3956258 -1.9455647 -7.8082085e-06 1.3829344e-38
1.4044319 -1.9455659 -8.7022781e-06 1.3829344e-38
1.4154377 -1.9455646 -7.7088671e-06 1.3829344e-38
1.4264452 -1.9455659 -8.6426735e-06 1.3829344e-38
-1.3812971 -1.9389465 -5.6028366e-06 1.3829344e-38
-1.3752429 -1.9356556 -6.7949295e-06 1.3829344e-38
-1.3652635 -1.9349972 -6.9856642e-06 1.3829344e-38
-1.3545138 -1.9363136 -6.4849855e-06 1.3829344e-38
-1.3445343 -1.9356554 -6.7353249e-06 1.3829344e-38
-1.3357604 -1.9356554 -6.7353249e-06 1.3829344e-38
-1.3257902 -1.9349972 -6.9856642e-06 1.3829344e-38
-1.3150218 -1.9363136 -6.4849855e-06 1.3829344e-38
-1.3050517 -1.9356554 -6.7353249e-06 1.3829344e-38
-1.2950871 -1.9349947 -4.7206877e-06 1.3829344e-38
-1.2843046 -1.936312 -4.9352648e-06 1.3829344e-38
-1.2743415 -1.9356533 -4.8279762e-06 1.3829344e-38
-1.2655675 -1.9356533 -4.8279762e-06 1.3829344e-38
-1.2556138 -1.9349947 -4.7206877e-06 1.3829344e-38
-1.2448126 -1.936312 -4.9352648e-06 1.3829344e-38
-1.2348589 -1.9356533 -4.8279762e-06 1.3829344e-38
-1.2249124 -1.9349947 -4.5776369e-06 1.3829344e-38
-1.2140967 -1.9363117 -4.7445296e-06 1.3829344e-38
-1.2041501 -1.9356531 -4.6491623e-06 1.3829344e-38
-1.1953762 -1.9356531 -4.6491623e-06 1.3829344e-38
-1.1854393 -1.9349945 -4.553795e-06 1.3829344e-38
-1.1746045 -1.9363117 -4.7445296e-06 1.3829344e-38
-1.1646688 -1.9356551 -6.377697e-06 1.3829344e-38
-1.1547388 -1.934996 -5.8650971e-06 1.3829344e-38
-1.14493 -1.9356549 -6.1988831e-06 1.3829344e-38
-1.135114 -1.9363139 -6.6518783e-06 1.3829344e-38
-1.1251849 -1.9356529 -4.4703484e-06 1.3829344e-38
-1.1152645 -1.9349943 -4.3630598e-06 1.3829344e-38
-1.1043966 -1.9363114 -4.5776369e-06 1.3829344e-38
-1.0944762 -1.9356529 -4.4703484e-06 1.3829344e-38
-1.0845631 -1.9349943 -4.3630598e-06 1.3829344e-38
-1.0747374 -1.9356526 -4.3511391e-06 1.3829344e-38
-1.0649045 -1.9363111 -4.4584276e-06 1.3829344e-38
-1.0549936 -1.9356526 -4.3511391e-06 1.3829344e-38
-1.04509 -1.9349941 -4.2438505e-06 1.3829344e-38
-1.035255 -1.9356526 -4.3511391e-06 1.3829344e-38
-1.0254126 -1.9363111 -4.4584276e-06 1.3829344e-38
-1.015511 -1.9356526 -4.3511391e-06 1.3829344e-38
-1.0056176 -1.9349957 -5.5789947e-06 1.3829344e-38
-0.99469775 -1.9363134 -6.4134597e-06 1.3829344e-38
-0.98480338 -1.9356545 -5.9604645e-06 1.3829344e-38
-0.97491616 -1.9349954 -5.5074693e-06 1.3829344e-38
-0.96506464 -1.9356545 -5.9604645e-06 1.3829344e-38
-0.9552058 -1.9363134 -6.4134597e-06 1.3829344e-38
-0.94532073 -1.9356545 -5.9604645e-06 1.3829344e-38
-0.93544292 -1.9349954 -5.5074693e-06 1.3829344e-38
-0.9244898 -1.9363134 -6.246567e-06 1.3829344e-38
-0.91461194 -1.9356545 -5.7816505e-06 1.3829344e-38
-0.90474188 -1.9349962 -6.0319899e-06 1.3829344e-38
-0.89487332 -1.9356544 -5.7816505e-06 1.3829344e-38
-0.88499737 -1.9363127 -5.5313112e-06 1.3829344e-38
-0.87512934 -1.9356544 -5.7816505e-06 1.3829344e-38
-0.86526871 -1.9349964 -6.0319899e-06 1.3829344e-38
-0.85539067 -1.9356543 -5.6922436e-06 1.3829344e-38
-0.84550607 -1.936314 -6.7949295e-06 1.3829344e-38
-0.8345679 -1.9349976 -7.2717667e-06 1.3829344e-38
-0.82468283 -1.9356562 -7.390976e-06 1.3829344e-38
-0.81479043 -1.9363148 -7.5101852e-06 1.3829344e-38
-0.80493891 -1.9356563 -7.390976e-06 1.3829344e-38
-0.79509473 -1.9349976 -7.2717667e-06 1.3829344e-38
-0.78520018 -1.9356563 -7.390976e-06 1.3829344e-38
-0.77529842 -1.9363148 -7.3194506e-06 1.3829344e-38
-0.76439321 -1.9349976 -7.1048735e-06 1.3829344e-38
-0.75449145 -1.9356561 -7.212162e-06 1.3829344e-38
-0.74458236 -1.9363148 -7.3194506e-06 1.3829344e-38
-0.73474753 -1.9356561 -7.212162e-06 1.3829344e-38
-0.72491968 -1.9349968 -6.4134597e-06 1.3829344e-38
-0.71500802 -1.9356542 -5.4836273e-06 1.3829344e-38
-0.70508939 -1.9363121 -5.1498414e-06 1.3829344e-38
-0.69421756 -1.9349949 -4.839897e-06 1.3829344e-38
-0.68429852 -1.9356518 -3.5762787e-06 1.3829344e-38
-0.67552459 -1.9356518 -3.5762787e-06 1.3829344e-38
-0.66559684 -1.9363104 -3.695488e-06 1.3829344e-38
-0.65474385 -1.9349934 -3.4570694e-06 1.3829344e-38
-0.64481598 -1.9356518 -3.5762787e-06 1.3829344e-38
-0.6348809 -1.9363104 -3.6478043e-06 1.3829344e-38
-0.62507212 -1.9356515 -3.3974648e-06 1.3829344e-38
-0.61527091 -1.9349937 -3.9815905e-06 1.3829344e-38
-0.6053341 -1.9356536 -5.1259995e-06 1.3829344e-38
-0.59538949 -1.9363117 -4.8875809e-06 1.3829344e-38
-0.58457011 -1.9349954 -5.364418e-06 1.3829344e-38
-0.57462543 -1.9356537 -5.1259995e-06 1.3829344e-38
-0.56585151 -1.9356537 -5.1259995e-06 1.3829344e-38
-0.55996138 -1.9389445 -3.9339066e-06 1.3829344e-38
0.55876321 -1.932362 -5.4836273e-06 1.3829344e-38
0.56479418 -1.9363139 -6.532669e-06 1.3829344e-38
0.57475662 -1.9356558 -7.0035458e-06 1.3829344e-38
0.58471125 -1.9349962 -6.1035157e-06 1.3829344e-38
0.59551048 -1.9363148 -7.5340272e-06 1.3829344e-38
0.60546505 -1.9356551 -6.4074993e-06 1.3829344e-38
0.61423934 -1.9356562 -7.301569e-06 1.3829344e-38
0.62418443 -1.9349964 -6.0558318e-06 1.3829344e-38
0.63500226 -1.9363142 -7.0333481e-06 1.3829344e-38
0.64494759 -1.9356549 -6.1988831e-06 1.3829344e-38
0.65488601 -1.9349968 -6.532669e-06 1.3829344e-38
0.66571802 -1.9363134 -6.3180923e-06 1.3829344e-38
0.67565674 -1.9356561 -7.3313713e-06 1.3829344e-38
0.68443024 -1.9356552 -6.467104e-06 1.3829344e-38
0.69435918 -1.9349968 -6.5803529e-06 1.3829344e-38
0.70521003 -1.9363136 -6.3657762e-06 1.3829344e-38
0.71513903 -1.9356554 -6.6161156e-06 1.3829344e-38
0.72506064 -1.9349968 -6.6518783e-06 1.3829344e-38
0.73487753 -1.9356549 -6.1690807e-06 1.3829344e-38
0.74470258 -1.9363149 -7.6293945e-06 1.3829344e-38
0.75462145 -1.9356548 -6.1690807e-06 1.3829344e-38
0.76453406 -1.9349973 -6.9856642e-06 1.3829344e-38
0.77541804 -1.9363136 -6.532669e-06 1.3829344e-38
0.78533059 -1.935656 -7.1525574e-06 1.3829344e-38
0.79523516 -1.9349966 -6.4134597e-06 1.3829344e-38
0.80506903 -1.9356554 -6.6161156e-06 1.3829344e-38
0.81490993 -1.9363134 -6.3657762e-06 1.3829344e-38
0.82481331 -1.9356563 -7.4207783e-06 1.3829344e-38
0.83470839 -1.9349968 -6.4849855e-06 1.3829344e-38
0.84562624 -1.9363142 -7.0333481e-06 1.3829344e-38
0.85552144 -1.9356549 -6.2584877e-06 1.3829344e-38
0.86540985 -1.9349968 -6.4611436e-06 1.3829344e-38
0.87526053 -1.9356558 -7.0333481e-06 1.3829344e-38
0.88511789 -1.9363136 -6.4134597e-06 1.3829344e-38
0.89500439 -1.9356558 -7.0035458e-06 1.3829344e-38
0.90488291 -1.9349964 -6.246567e-06 1.3829344e-38
0.9147433 -1.9356562 -7.301569e-06 1.3829344e-38
0.92461014 -1.9363139 -6.7234041e-06 1.3829344e-38
0.93558472 -1.9349973 -7.0095061e-06 1.3829344e-38
0.94545162 -1.9356554 -6.6757202e-06 1.3829344e-38
0.95532644 -1.9363146 -7.2240828e-06 1.3829344e-38
0.96519524 -1.9356548 -6.1094761e-06 1.3829344e-38
0.9750582 -1.9349979 -7.367134e-06 1.3829344e-38
0.98493391 -1.9356548 -6.0796738e-06 1.3829344e-38
0.99481833 -1.9363143 -7.081032e-06 1.3829344e-38
1.0046779 -1.9356551 -6.3180923e-06 1.3829344e-38
1.0145309 -1.934997 -6.6280363e-06 1.3829344e-38
1.0244168 -1.9356554 -6.7353249e-06 1.3829344e-38
1.0343097 -1.9363136 -6.508827e-06 1.3829344e-38
1.0452324 -1.934997 -6.7472456e-06 1.3829344e-38
1.0551254 -1.9356551 -6.5267086e-06 1.3829344e-38
1.0650265 -1.9363148 -7.5578691e-06 1.3829344e-38
1.0748698 -1.9356561 -7.2419643e-06 1.3829344e-38
1.0847058 -1.9349973 -7.081032e-06 1.3829344e-38
1.0946082 -1.9356554 -6.7651272e-06 1.3829344e-38
1.1045185 -1.9363146 -7.3194506e-06 1.3829344e-38
1.1154066 -1.9349964 -6.1750411e-06 1.3829344e-38
1.1253171 -1.9356558 -7.0035458e-06 1.3829344e-38
1.1352336 -1.9363133 -6.1988831e-06 1.3829344e-38
1.1450611 -1.9356561 -7.3313713e-06 1.3829344e-38
1.1548798 -1.9349964 -6.1750411e-06 1.3829344e-38
1.1647998 -1.935656 -7.212162e-06 1.3829344e-38
1.174726 -1.9363139 -6.7472456e-06 1.3829344e-38
1.1855814 -1.934997 -6.6518783e-06 1.3829344e-38
1.1955082 -1.9356558 -6.9141388e-06 1.3829344e-38
1.2042829 -1.935657 -7.9274178e-06 1.3829344e-38
1.2142184 -1.9363146 -7.2717667e-06 1.3829344e-38
1.225055 -1.9349972 -6.9379807e-06 1.3829344e-38
1.2349912 -1.9356561 -7.212162e-06 1.3829344e-38
1.2449343 -1.9363143 -7.1763993e-06 1.3829344e-38
1.2557563 -1.9349972 -6.7472456e-06 1.3829344e-38
1.2656993 -1.9356552 -6.5863132e-06 1.3829344e-38
1.2744737 -1.9356558 -7.1227551e-06 1.3829344e-38
1.2844255 -1.9363134 -6.2704084e-06 1.3829344e-38
1.2952297 -1.9349973 -7.1048735e-06 1.3829344e-38
1.3051814 -1.9356544 -5.9604645e-06 1.3829344e-38
1.3151424 -1.9363146 -7.367134e-06 1.3829344e-38
1.3259304 -1.9349964 -6.1511992e-06 1.3829344e-38
1.335891 -1.9356558 -7.0333481e-06 1.3829344e-38
1.3446648 -1.9356558 -7.0035458e-06 1.3829344e-38
1.3546348 -1.9363152 -7.8439716e-06 1.3829344e-38
1.3654039 -1.9349968 -6.508827e-06 1.3829344e-38
1.3753741 -1.9356567 -7.6889992e-06 1.3829344e-38
1.3841478 -1.9356561 -7.301569e-06 1.3829344e-38
1.3941264 -1.9363146 -7.367134e-06 1.3829344e-38
1.4048774 -1.9349972 -6.9141388e-06 1.3829344e-38
1.4148558 -1.9356554 -6.6459179e-06 1.3829344e-38
1.4227244 -1.9367541 -7.7486038e-06 1.3829344e-38
-1.3724656 -1.925809 -5.9604645e-06 1.3829344e-38
-1.3637228 -1.925809 -5.9604645e-06 1.3829344e-38
-1.3549801 -1.925809 -5.9604645e-06 1.3829344e-38
-1.3462374 -1.925809 -5.9604645e-06 1.3829344e-38
-1.335309 -1.925809 -5.9604645e-06 1.3829344e-38
-1.3243805 -1.925809 -5.9604645e-06 1.3829344e-38
-1.3156378 -1.925809 -5.9604645e-06 1.3829344e-38
-1.3047093 -1.9258089 -5.9207282e-06 1.3829344e-38
-1.2937808 -1.9258088 -5.8412552e-06 1.3829344e-38
-1.2850381 -1.9258088 -5.8412552e-06 1.3829344e-38
-1.2762954 -1.9258088 -5.8412552e-06 1.3829344e-38
-1.2653652 -1.9258064 -3.6160152e-06 1.3829344e-38
-1.2544359 -1.9258051 -2.5033951e-06 1.3829344e-38
-1.2456932 -1.9258051 -2.5033951e-06 1.3829344e-38
-1.2347648 -1.9258051 -2.5033951e-06 1.3829344e-38
-1.2238363 -1.9258049 -2.2649765e-06 1.3829344e-38
-1.2150936 -1.9258049 -2.2649765e-06 1.3829344e-38
-1.2063508 -1.9258049 -2.2649765e-06 1.3829344e-38
-1.1954225 -1.9258047 -2.2649765e-06 1.3829344e-38
-1.184494 -1.9258049 -2.2649765e-06 1.3829344e-38
-1.1757514 -1.9258049 -2.2649765e-06 1.3829344e-38
-1.1648254 -1.9258089 -5.6028366e-06 1.3829344e-38
-1.153897 -1.9258088 -5.543232e-06 1.3829344e-38
-1.1451542 -1.9258087 -5.4836273e-06 1.3829344e-38
-1.1364114 -1.9258087 -5.4836273e-06 1.3829344e-38
-1.125483 -1.9258085 -5.4836273e-06 1.3829344e-38
-1.1145546 -1.9258087 -5.4836273e-06 1.3829344e-38
-1.105812 -1.9258087 -5.4836273e-06 1.3829344e-38
-1.0948836 -1.9258085 -5.4836273e-06 1.3829344e-38
-1.083955 -1.9258087 -5.4836273e-06 1.3829344e-38
-1.0752122 -1.9258084 -5.2452087e-06 1.3829344e-38
-1.0664696 -1.9258084 -5.2452087e-06 1.3829344e-38
-1.0555412 -1.9258084 -5.2452087e-06 1.3829344e-38
-1.0446128 -1.9258084 -5.2452087e-06 1.3829344e-38
-1.0358701 -1.9258084 -5.2452087e-06 1.3829344e-38
-1.0249416 -1.9258084 -5.2452087e-06 1.3829344e-38
-1.0140132 -1.9258084 -5.2452087e-06 1.3829344e-38
-1.0052705 -1.9258083 -5.1856041e-06 1.3829344e-38
-0.99652755 -1.9258082 -5.1259995e-06 1.3829344e-38
-0.98559922 -1.9258083 -5.1259995e-06 1.3829344e-38
-0.97467077 -1.9258082 -5.1259995e-06 1.3829344e-38
-0.96592808 -1.9258082 -5.1259995e-06 1.3829344e-38
-0.95499963 -1.9258083 -5.1259995e-06 1.3829344e-38
-0.94407117 -1.9258082 -5.1259995e-06 1.3829344e-38
-0.93532848 -1.9258082 -5.1259995e-06 1.3829344e-38
-0.92440003 -1.925808 -5.0067902e-06 1.3829344e-38
-0.91347158 -1.925808 -5.0067902e-06 1.3829344e-38
-0.90472889 -1.925808 -5.0067902e-06 1.3829344e-38
-0.89598608 -1.925808 -5.0067902e-06 1.3829344e-38
-0.88505775 -1.925808 -5.0067902e-06 1.3829344e-38
-0.8741293 -1.925808 -5.0067902e-06 1.3829344e-38
-0.86538661 -1.925808 -5.0067902e-06 1.3829344e-38
-0.85445875 -1.9258093 -6.0796738e-06 1.3829344e-38
-0.84353161 -1.9258118 -8.3446503e-06 1.3829344e-38
-0.8347888 -1.9258118 -8.3446503e-06 1.3829344e-38
-0.82604611 -1.9258118 -8.3446503e-06 1.3829344e-38
-0.8151176 -1.9258118 -8.3446503e-06 1.3829344e-38
-0.80418921 -1.9258118 -8.3446503e-06 1.3829344e-38
-0.79544652 -1.9258118 -8.3446503e-06 1.3829344e-38
-0.784518 -1.9258118 -8.3049135e-06 1.3829344e-38
-0.77358955 -1.9258118 -8.225441e-06 1.3829344e-38
-0.7648468 -1.9258118 -8.225441e-06 1.3829344e-38
-0.75610405 -1.9258118 -8.225441e-06 1.3829344e-38
-0.74517566 -1.9258118 -8.225441e-06 1.3829344e-38
-0.73424721 -1.9258118 -8.225441e-06 1.3829344e-38
-0.72550446 -1.9258118 -8.225441e-06 1.3829344e-38
-0.71457601 -1.9258118 -8.225441e-06 1.3829344e-38
-0.70364749 -1.9258115 -7.9870224e-06 1.3829344e-38
-0.6949048 -1.9258115 -7.9870224e-06 1.3829344e-38
-0.68616205 -1.9258115 -7.9870224e-06 1.3829344e-38
-0.6752336 -1.9258114 -7.9870224e-06 1.3829344e-38
-0.66430521 -1.9258115 -7.9870224e-06 1.3829344e-38
-0.65556097 -1.9258074 -4.4107437e-06 1.3829344e-38
-0.64463258 -1.9258074 -4.4107437e-06 1.3829344e-38
-0.63370419 -1.9258074 -4.3511391e-06 1.3829344e-38
-0.62496138 -1.9258074 -4.2915344e-06 1.3829344e-38
-0.61621869 -1.9258074 -4.2915344e-06 1.3829344e-38
-0.60529023 -1.9258074 -4.2915344e-06 1.3829344e-38
-0.5943619 -1.9258074 -4.2915344e-06 1.3829344e-38
-0.58561915 -1.9258074 -4.2915344e-06 1.3829344e-38
-0.57469076 -1.9258074 -4.2915344e-06 1.3829344e-38
-0.56376231 -1.9258074 -4.2915344e-06 1.3829344e-38
0.5640496 -1.9258101 -6.7949295e-06 1.3829344e-38
0.57497805 -1.9258102 -6.8346658e-06 1.3829344e-38
0.58590639 -1.92581 -6.7949295e-06 1.3829344e-38
0.5946492 -1.9258101 -6.8545341e-06 1.3829344e-38
0.60557747 -1.9258095 -6.5167746e-06 1.3829344e-38
0.61650598 -1.9258101 -6.7353249e-06 1.3829344e-38
0.62524843 -1.925809 -5.9604645e-06 1.3829344e-38
0.63399148 -1.9258102 -6.9737434e-06 1.3829344e-38
0.64491957 -1.9258093 -6.0002008e-06 1.3829344e-38
0.65584862 -1.9258112 -7.6889992e-06 1.3829344e-38
0.66459072 -1.9258091 -6.1392784e-06 1.3829344e-38
0.67552018 -1.9258122 -8.6228056e-06 1.3829344e-38
0.6864475 -1.9258091 -5.8412552e-06 1.3829344e-38
0.69519138 -1.9258122 -8.7022781e-06 1.3829344e-38
0.70393384 -1.9258115 -7.9870224e-06 1.3829344e-38
0.71486211 -1.9258109 -7.5499215e-06 1.3829344e-38
0.72579062 -1.9258113 -7.8678131e-06 1.3829344e-38
0.73453343 -1.9258113 -7.9870224e-06 1.3829344e-38
0.74546188 -1.9258113 -7.8280764e-06 1.3829344e-38
0.75639021 -1.9258113 -7.8678131e-06 1.3829344e-38
0.76513302 -1.9258115 -7.9870224e-06 1.3829344e-38
0.77387542 -1.9258106 -7.3313713e-06 1.3829344e-38
0.78480417 -1.9258114 -7.9472857e-06 1.3829344e-38
0.79573262 -1.9258113 -7.9870224e-06 1.3829344e-38
0.80447543 -1.9258115 -8.046627e-06 1.3829344e-38
0.81540364 -1.9258112 -7.7088671e-06 1.3829344e-38
0.82633215 -1.9258113 -7.8678131e-06 1.3829344e-38
0.83507454 -1.9258106 -7.3313713e-06 1.3829344e-38
0.84381783 -1.9258116 -8.1658363e-06 1.3829344e-38
0.85474569 -1.9258107 -7.3115029e-06 1.3829344e-38
0.86567461 -1.9258115 -8.046627e-06 1.3829344e-38
0.87441695 -1.9258107 -7.390976e-06 1.3829344e-38
0.88534546 -1.9258112 -7.5896583e-06 1.3829344e-38
0.89627373 -1.9258106 -7.3313713e-06 1.3829344e-38
0.90501654 -1.9258108 -7.390976e-06 1.3829344e-38
0.91375935 -1.9258108 -7.5101852e-06 1.3829344e-38
0.92468756 -1.9258105 -7.0333481e-06 1.3829344e-38
0.93561614 -1.9258106 -7.3313713e-06 1.3829344e-38
0.94435894 -1.9258109 -7.5101852e-06 1.3829344e-38
0.95528728 -1.9258108 -7.470449e-06 1.3829344e-38
0.96621573 -1.9258107 -7.2717667e-06 1.3829344e-38
0.97495848 -1.9258107 -7.390976e-06 1.3829344e-38
0.98370081 -1.9258101 -6.7353249e-06 1.3829344e-38
0.99462968 -1.9258108 -7.470449e-06 1.3829344e-38
1.0055575 -1.9258097 -6.5565109e-06 1.3829344e-38
1.0143008 -1.9258109 -7.6293945e-06 1.3829344e-38
1.0252287 -1.9258099 -6.6757202e-06 1.3829344e-38
1.0361576 -1.9258108 -7.5101852e-06 1.3829344e-38
1.0448999 -1.92581 -6.6757202e-06 1.3829344e-38
1.0536427 -1.9258101 -6.7949295e-06 1.3829344e-38
1.064571 -1.92581 -6.7949295e-06 1.3829344e-38
1.0755 -1.9258109 -7.6293945e-06 1.3829344e-38
1.0842423 -1.9258102 -6.8545341e-06 1.3829344e-38
1.0951709 -1.9258103 -7.1128211e-06 1.3829344e-38
1.1060989 -1.92581 -6.6757202e-06 1.3829344e-38
1.1148424 -1.9258112 -7.6889992e-06 1.3829344e-38
1.1235846 -1.9258102 -6.9737434e-06 1.3829344e-38
1.1345133 -1.9258107 -7.2320304e-06 1.3829344e-38
1.145442 -1.9258112 -7.6889992e-06 1.3829344e-38
1.1541836 -1.9258091 -6.1392784e-06 1.3829344e-38
1.1651138 -1.9258122 -8.6625414e-06 1.3829344e-38
1.1760404 -1.925809 -5.9604645e-06 1.3829344e-38
1.184785 -1.9258122 -8.6426735e-06 1.3829344e-38
1.1935272 -1.9258113 -7.8678131e-06 1.3829344e-38
1.2044563 -1.9258124 -8.7817507e-06 1.3829344e-38
1.215384 -1.9258113 -7.8678131e-06 1.3829344e-38
1.2241275 -1.9258125 -8.8214874e-06 1.3829344e-38
1.2350552 -1.9258113 -7.8280764e-06 1.3829344e-38
1.2459843 -1.9258122 -8.6426735e-06 1.3829344e-38
1.2547264 -1.9258115 -7.9870224e-06 1.3829344e-38
1.2634692 -1.9258115 -8.1062317e-06 1.3829344e-38
1.2743977 -1.9258114 -8.066495e-06 1.3829344e-38
1.285326 -1.9258113 -7.9870224e-06 1.3829344e-38
1.2940688 -1.9258115 -7.9870224e-06 1.3829344e-38
1.304997 -1.9258112 -7.7088671e-06 1.3829344e-38
1.3159256 -1.9258114 -7.8678131e-06 1.3829344e-38
1.3246678 -1.9258106 -7.3313713e-06 1.3829344e-38
1.3355969 -1.9258114 -8.0267591e-06 1.3829344e-38
1.3465252 -1.9258113 -7.9870224e-06 1.3829344e-38
1.355268 -1.9258115 -7.9870224e-06 1.3829344e-38
1.3640102 -1.9258106 -7.3313713e-06 1.3829344e-38
1.3749393 -1.9258116 -8.066495e-06 1.3829344e-38
1.3858669 -1.9258106 -7.3313713e-06 1.3829344e-38
1.3946105 -1.9258116 -8.1658363e-06 1.3829344e-38
1.4055382 -1.9258107 -7.3115029e-06 1.3829344e-38
1.4164672 -1.9258115 -7.9870224e-06 1.3829344e-38
-1.3713496 -1.9192839 -3.4570694e-06 1.3829344e-38
-1.3653493 -1.9160383 -3.5762787e-06 1.3829344e-38
-1.3554425 -1.9153893 -3.6001206e-06 1.3829344e-38
-1.3447647 -1.9166874 -3.5524367e-06 1.3829344e-38
-1.3348579 -1.9160383 -3.5762787e-06 1.3829344e-38
-1.3249584 -1.9153893 -3.6001206e-06 1.3829344e-38
-1.3142662 -1.9166874 -3.5524367e-06 1.3829344e-38
-1.3043666 -1.9160383 -3.5762787e-06 1.3829344e-38
-1.2956548 -1.9160382 -3.516674e-06 1.3829344e-38
-1.2857645 -1.9153891 -3.528595e-06 1.3829344e-38
-1.2750537 -1.9166873 -3.5047531e-06 1.3829344e-38
-1.2651635 -1.916038 -3.516674e-06 1.3829344e-38
-1.2552805 -1.9153888 -3.528595e-06 1.3829344e-38
-1.2445571 -1.9166896 -5.5789947e-06 1.3829344e-38
-1.234673 -1.916039 -4.3809414e-06 1.3829344e-38
-1.2247965 -1.9153887 -3.3855438e-06 1.3829344e-38
-1.2150732 -1.9160378 -3.3378601e-06 1.3829344e-38
-1.205343 -1.916687 -3.3140182e-06 1.3829344e-38
-1.1954693 -1.9160378 -3.3378601e-06 1.3829344e-38
-1.1856025 -1.9153887 -3.3617021e-06 1.3829344e-38
-1.1748445 -1.916687 -3.3140182e-06 1.3829344e-38
-1.1649792 -1.9160399 -5.0663948e-06 1.3829344e-38
-1.15512 -1.9153913 -5.4121019e-06 1.3829344e-38
-1.1443471 -1.9166886 -4.5061111e-06 1.3829344e-38
-1.1344879 -1.9160398 -4.8875809e-06 1.3829344e-38
-1.1246359 -1.9153912 -5.2690507e-06 1.3829344e-38
-1.1148889 -1.9160399 -4.8875809e-06 1.3829344e-38
-1.1051347 -1.9166886 -4.5061111e-06 1.3829344e-38
-1.0952847 -1.9160398 -4.8875809e-06 1.3829344e-38
-1.0854431 -1.9153929 -6.6995622e-06 1.3829344e-38
-1.0746377 -1.9166908 -6.508827e-06 1.3829344e-38
-1.0647945 -1.9160416 -6.4969063e-06 1.3829344e-38
-1.0549588 -1.9153925 -6.508827e-06 1.3829344e-38
-1.0451956 -1.9160416 -6.4969063e-06 1.3829344e-38
-1.0354252 -1.9166908 -6.4849855e-06 1.3829344e-38
-1.0244747 -1.9153925 -6.508827e-06 1.3829344e-38
-1.0147042 -1.9160416 -6.4969063e-06 1.3829344e-38
-1.0049269 -1.9166906 -6.4373016e-06 1.3829344e-38
-0.99510002 -1.9160415 -6.377697e-06 1.3829344e-38
-0.98528069 -1.9153923 -6.3896177e-06 1.3829344e-38
-0.97442806 -1.9166906 -6.3657762e-06 1.3829344e-38
-0.96460879 -1.9160415 -6.377697e-06 1.3829344e-38
-0.95479649 -1.9153923 -6.3896177e-06 1.3829344e-38
-0.94500971 -1.9160415 -6.377697e-06 1.3829344e-38
-0.93521577 -1.9166906 -6.3657762e-06 1.3829344e-38
-0.9254055 -1.9160411 -6.1988831e-06 1.3829344e-38
-0.91560256 -1.9153919 -6.222725e-06 1.3829344e-38
-0.90471715 -1.9166905 -6.1750411e-06 1.3829344e-38
-0.89491427 -1.9160413 -6.1988831e-06 1.3829344e-38
-0.88511848 -1.9153922 -6.222725e-06 1.3829344e-38
-0.87531525 -1.9160413 -6.1988831e-06 1.3829344e-38
-0.86550486 -1.9166905 -6.1750411e-06 1.3829344e-38
-0.85463512 -1.9153936 -7.5101852e-06 1.3829344e-38
-0.84482479 -1.9160432 -7.7486038e-06 1.3829344e-38
-0.83500701 -1.916692 -7.367134e-06 1.3829344e-38
-0.82521981 -1.9160411 -6.0200691e-06 1.3829344e-38
-0.81544083 -1.9153929 -6.7472456e-06 1.3829344e-38
-0.80450743 -1.9166895 -5.2928926e-06 1.3829344e-38
-0.79472804 -1.9160401 -5.1259995e-06 1.3829344e-38
-0.78495562 -1.9153904 -4.5776369e-06 1.3829344e-38
-0.77512896 -1.9160399 -4.9769878e-06 1.3829344e-38
-0.76529533 -1.9166901 -5.8174132e-06 1.3829344e-38
-0.7544722 -1.9153917 -5.8650971e-06 1.3829344e-38
-0.74463809 -1.9160409 -5.8412552e-06 1.3829344e-38
-0.73479688 -1.9166901 -5.8174132e-06 1.3829344e-38
-0.725034 -1.9160409 -5.8412552e-06 1.3829344e-38
-0.71527839 -1.9153917 -5.8650971e-06 1.3829344e-38
-0.70543498 -1.9160408 -5.7518482e-06 1.3829344e-38
-0.69558448 -1.9166899 -5.6982039e-06 1.3829344e-38
-0.68479425 -1.9153916 -5.7458878e-06 1.3829344e-38
-0.67494369 -1.9160407 -5.7220459e-06 1.3829344e-38
-0.66508591 -1.9166899 -5.6982039e-06 1.3829344e-38
-0.65431011 -1.9153916 -5.7458878e-06 1.3829344e-38
-0.64445239 -1.9160408 -5.7220459e-06 1.3829344e-38
-0.63574058 -1.9160407 -5.7220459e-06 1.3829344e-38
-0.62587297 -1.9166882 -4.0769578e-06 1.3829344e-38
-0.61511594 -1.9153906 -4.8160555e-06 1.3829344e-38
-0.60524929 -1.9160405 -5.4836273e-06 1.3829344e-38
-0.59537482 -1.9166889 -4.7445296e-06 1.3829344e-38
-0.58463132 -1.9153888 -3.3617021e-06 1.3829344e-38
-0.57475734 -1.9160385 -3.695488e-06 1.3829344e-38
-0.56487608 -1.9166882 -4.0292739e-06 1.3829344e-38
-0.55882502 -1.9127908 -2.0265579e-06 1.3829344e-38
0.55931896 -1.9127955 -6.3180923e-06 1.3829344e-38
0.5653078 -1.9166912 -6.8187715e-06 1.3829344e-38
0.57519931 -1.9160416 -6.467104e-06 1.3829344e-38
0.58508402 -1.9153931 -7.1287154e-06 1.3829344e-38
0.59580618 -1.9166908 -6.4611436e-06 1.3829344e-38
0.6056906 -1.9160414 -6.3478947e-06 1.3829344e-38
0.61440253 -1.9160419 -6.6459179e-06 1.3829344e-38
0.62427765 -1.9153925 -6.508827e-06 1.3829344e-38
0.63501871 -1.9166912 -6.9141388e-06 1.3829344e-38
0.64489341 -1.9160407 -5.6624413e-06 1.3829344e-38
0.65476197 -1.9153932 -7.1525574e-06 1.3829344e-38
0.66551697 -1.9166905 -6.246567e-06 1.3829344e-38
0.67538512 -1.916042 -6.8247318e-06 1.3829344e-38
0.68524587 -1.9153926 -6.7234041e-06 1.3829344e-38
0.69498444 -1.9160428 -7.4505806e-06 1.3829344e-38
0.70472938 -1.9166906 -6.3896177e-06 1.3829344e-38
0.71458852 -1.9160428 -7.4803829e-06 1.3829344e-38
0.72443956 -1.9153922 -6.1273577e-06 1.3829344e-38
0.73522812 -1.9166914 -7.0333481e-06 1.3829344e-38
0.7450794 -1.9160416 -6.4373016e-06 1.3829344e-38
0.75492406 -1.9153931 -7.081032e-06 1.3829344e-38
0.76572633 -1.9166905 -6.2942504e-06 1.3829344e-38
0.77557069 -1.9160414 -6.3478947e-06 1.3829344e-38
0.78540808 -1.9153926 -6.7234041e-06 1.3829344e-38
0.79517013 -1.9160426 -7.3611736e-06 1.3829344e-38
0.80493909 -1.9166915 -7.1048735e-06 1.3829344e-38
0.81477427 -1.9160427 -7.301569e-06 1.3829344e-38
0.82460195 -1.9153926 -6.7710876e-06 1.3829344e-38
0.83543718 -1.9166906 -6.4373016e-06 1.3829344e-38
0.84526533 -1.916042 -6.8545341e-06 1.3829344e-38
0.85508597 -1.9153929 -6.6995622e-06 1.3829344e-38
0.86486465 -1.9160428 -7.4207783e-06 1.3829344e-38
0.87464941 -1.9166905 -6.1988831e-06 1.3829344e-38
0.88557041 -1.9153935 -7.3432921e-06 1.3829344e-38
0.8953554 -1.9160416 -6.4074993e-06 1.3829344e-38
0.90514815 -1.9166908 -6.532669e-06 1.3829344e-38
0.91495955 -1.9160416 -6.467104e-06 1.3829344e-38
0.92476445 -1.9153935 -7.4625013e-06 1.3829344e-38
0.93564636 -1.9166905 -6.1035157e-06 1.3829344e-38
0.94545126 -1.9160424 -7.1823597e-06 1.3829344e-38
0.955248 -1.9153926 -6.6041948e-06 1.3829344e-38
0.96505034 -1.9160426 -7.2717667e-06 1.3829344e-38
0.97485912 -1.9166912 -6.8902968e-06 1.3829344e-38
0.98465431 -1.9160422 -6.9141388e-06 1.3829344e-38
0.99444216 -1.9153931 -7.1048735e-06 1.3829344e-38
1.0053571 -1.9166905 -6.1988831e-06 1.3829344e-38
1.0151455 -1.916042 -6.7949295e-06 1.3829344e-38
1.0249259 -1.9153926 -6.6995622e-06 1.3829344e-38
1.0347447 -1.9160426 -7.3611736e-06 1.3829344e-38
1.0445696 -1.9166906 -6.2942504e-06 1.3829344e-38
1.0554104 -1.9153935 -7.3432921e-06 1.3829344e-38
1.0652354 -1.9160414 -6.3180923e-06 1.3829344e-38
1.0750687 -1.9166918 -7.3194506e-06 1.3829344e-38
1.0848396 -1.9160416 -6.4373016e-06 1.3829344e-38
1.0946047 -1.9153941 -7.7724453e-06 1.3829344e-38
1.1044383 -1.9160413 -6.1392784e-06 1.3829344e-38
1.1142808 -1.9166911 -6.7710876e-06 1.3829344e-38
1.125088 -1.9153926 -6.6280363e-06 1.3829344e-38
1.1349305 -1.9160426 -7.3611736e-06 1.3829344e-38
1.1447796 -1.9166914 -7.05719e-06 1.3829344e-38
1.1555728 -1.9153938 -7.5578691e-06 1.3829344e-38
1.1654211 -1.9160414 -6.2584877e-06 1.3829344e-38
1.1752775 -1.9166906 -6.3419343e-06 1.3829344e-38
1.1850256 -1.9160421 -6.7949295e-06 1.3829344e-38
1.1947665 -1.9153935 -7.367134e-06 1.3829344e-38
1.2046249 -1.9160426 -7.390976e-06 1.3829344e-38
1.2144905 -1.9166915 -7.2240828e-06 1.3829344e-38
1.2252506 -1.9153935 -7.3432921e-06 1.3829344e-38
1.2351159 -1.9160421 -6.7949295e-06 1.3829344e-38
1.2449889 -1.9166918 -7.1763993e-06 1.3829344e-38
1.2557344 -1.9153929 -6.8426134e-06 1.3829344e-38
1.2656077 -1.9160428 -7.5399876e-06 1.3829344e-38
1.2743185 -1.9160413 -6.1094761e-06 1.3829344e-38
1.2842011 -1.9166912 -6.9618227e-06 1.3829344e-38
1.294928 -1.9153926 -6.6518783e-06 1.3829344e-38
1.3048106 -1.9160427 -7.3611736e-06 1.3829344e-38
1.3146998 -1.9166912 -6.9618227e-06 1.3829344e-38
1.3254135 -1.9153945 -8.3208088e-06 1.3829344e-38
1.3353015 -1.9160419 -6.7055225e-06 1.3829344e-38
1.345198 -1.9166912 -6.9618227e-06 1.3829344e-38
1.3558964 -1.9153929 -6.8426134e-06 1.3829344e-38
1.3657936 -1.9160429 -7.4803829e-06 1.3829344e-38
1.3745052 -1.9160427 -7.3611736e-06 1.3829344e-38
1.3844109 -1.9166918 -7.3432921e-06 1.3829344e-38
1.3950908 -1.9153935 -7.3432921e-06 1.3829344e-38
1.4049956 -1.9160414 -6.377697e-06 1.3829344e-38
1.4128046 -1.9171247 -7.6293945e-06 1.3829344e-38
-1.362627 -1.9063315 -3.695488e-06 1.3829344e-38
-1.353946 -1.9063315 -3.695488e-06 1.3829344e-38
-1.3452649 -1.9063315 -3.695488e-06 1.3829344e-38
-1.3344135 -1.9063315 -3.695488e-06 1.3829344e-38
-1.3235624 -1.9063315 -3.695488e-06 1.3829344e-38
-1.3148813 -1.9063315 -3.695488e-06 1.3829344e-38
-1.3062003 -1.9063315 -3.695488e-06 1.3829344e-38
-1.2953488 -1.9063315 -3.4570694e-06 1.3829344e-38
-1.2844975 -1.9063315 -3.4570694e-06 1.3829344e-38
-1.2758164 -1.9063315 -3.4570694e-06 1.3829344e-38
-1.2649652 -1.9063315 -3.4570694e-06 1.3829344e-38
-1.2541139 -1.9063315 -3.4570694e-06 1.3829344e-38
-1.2454355 -1.9063356 -7.0333481e-06 1.3829344e-38
-1.2345842 -1.9063355 -7.0333481e-06 1.3829344e-38
-1.2237327 -1.9063354 -6.7949295e-06 1.3829344e-38
-1.2150517 -1.9063354 -6.7949295e-06 1.3829344e-38
-1.2063706 -1.9063354 -6.7949295e-06 1.3829344e-38
-1.1955193 -1.9063354 -6.7949295e-06 1.3829344e-38
-1.1846681 -1.9063354 -6.7949295e-06 1.3829344e-38
-1.175987 -1.9063354 -6.7949295e-06 1.3829344e-38
-1.1651355 -1.9063354 -6.7949295e-06 1.3829344e-38
-1.1542842 -1.9063352 -6.7353249e-06 1.3829344e-38
-1.1456032 -1.9063351 -6.6757202e-06 1.3829344e-38
-1.1347518 -1.9063352 -6.6757202e-06 1.3829344e-38
-1.1239004 -1.9063351 -6.6757202e-06 1.3829344e-38
-1.1152194 -1.9063351 -6.6757202e-06 1.3829344e-38
-1.1043681 -1.9063352 -6.6757202e-06 1.3829344e-38
-1.0935166 -1.9063351 -6.6757202e-06 1.3829344e-38
-1.0848355 -1.9063351 -6.6757202e-06 1.3829344e-38
-1.0761545 -1.9063349 -6.6757202e-06 1.3829344e-38
-1.0653031 -1.9063349 -6.6757202e-06 1.3829344e-38
-1.0544517 -1.9063349 -6.6757202e-06 1.3829344e-38
-1.0457706 -1.9063349 -6.6757202e-06 1.3829344e-38
-1.0349194 -1.9063349 -6.6757202e-06 1.3829344e-38
-1.0240681 -1.9063349 -6.6757202e-06 1.3829344e-38
-1.0153871 -1.9063349 -6.6757202e-06 1.3829344e-38
-1.0045357 -1.9063349 -6.6359839e-06 1.3829344e-38
-0.99368417 -1.9063348 -6.5565109e-06 1.3829344e-38
-0.98500311 -1.9063348 -6.5565109e-06 1.3829344e-38
-0.97632205 -1.9063348 -6.5565109e-06 1.3829344e-38
-0.9654693 -1.906332 -4.0928521e-06 1.3829344e-38
-0.95461726 -1.9063308 -2.8610229e-06 1.3829344e-38
-0.94593626 -1.9063308 -2.8610229e-06 1.3829344e-38
-0.93508631 -1.9063334 -5.3246818e-06 1.3829344e-38
-0.92423558 -1.9063345 -6.3180923e-06 1.3829344e-38
-0.91555452 -1.9063345 -6.3180923e-06 1.3829344e-38
-0.9047032 -1.9063345 -6.3180923e-06 1.3829344e-38
-0.89385188 -1.9063345 -6.3180923e-06 1.3829344e-38
-0.88517082 -1.9063345 -6.3180923e-06 1.3829344e-38
-0.87648976 -1.9063345 -6.3180923e-06 1.3829344e-38
-0.86563843 -1.9063345 -6.3180923e-06 1.3829344e-38
-0.85478711 -1.9063345 -6.1988831e-06 1.3829344e-38
-0.84610599 -1.9063345 -6.0796738e-06 1.3829344e-38
-0.83525467 -1.9063345 -6.0796738e-06 1.3829344e-38
-0.82440335 -1.9063345 -6.0796738e-06 1.3829344e-38
-0.81572229 -1.9063345 -6.0796738e-06 1.3829344e-38
-0.8048709 -1.9063345 -6.0796738e-06 1.3829344e-38
-0.79401964 -1.9063345 -6.0796738e-06 1.3829344e-38
-0.78533858 -1.9063345 -6.0796738e-06 1.3829344e-38
-0.77448827 -1.9063369 -8.3446503e-06 1.3829344e-38
-0.76363671 -1.9063363 -7.7486038e-06 1.3829344e-38
-0.75495476 -1.9063344 -5.9604645e-06 1.3829344e-38
-0.7462737 -1.9063344 -5.9604645e-06 1.3829344e-38
-0.73542237 -1.9063344 -5.9604645e-06 1.3829344e-38
-0.72457105 -1.9063344 -5.9604645e-06 1.3829344e-38
-0.71588999 -1.9063344 -5.9604645e-06 1.3829344e-38
-0.70503861 -1.9063343 -5.8809915e-06 1.3829344e-38
-0.69418728 -1.9063342 -5.8412552e-06 1.3829344e-38
-0.68550622 -1.9063342 -5.8412552e-06 1.3829344e-38
-0.6746549 -1.9063343 -5.8412552e-06 1.3829344e-38
-0.66380358 -1.9063342 -5.8412552e-06 1.3829344e-38
-0.65512252 -1.9063342 -5.8412552e-06 1.3829344e-38
-0.64644146 -1.9063342 -5.8412552e-06 1.3829344e-38
-0.63559014 -1.906334 -5.7617822e-06 1.3829344e-38
-0.62473875 -1.9063339 -5.6028366e-06 1.3829344e-38
-0.61605769 -1.9063339 -5.6028366e-06 1.3829344e-38
-0.60520637 -1.9063339 -5.6028366e-06 1.3829344e-38
-0.59435505 -1.9063339 -5.6028366e-06 1.3829344e-38
-0.58567399 -1.9063339 -5.6028366e-06 1.3829344e-38
-0.57482266 -1.9063339 -5.6028366e-06 1.3829344e-38
-0.56397069 -1.9063319 -3.8743019e-06 1.3829344e-38
0.56456709 -1.906337 -8.4638596e-06 1.3829344e-38
0.57541794 -1.9063357 -7.1922937e-06 1.3829344e-38
0.58626956 -1.9063365 -7.9274178e-06 1.3829344e-38
0.59495026 -1.9063354 -6.9737434e-06 1.3829344e-38
0.60363162 -1.9063362 -7.5697899e-06 1.3829344e-38
0.6144827 -1.9063358 -7.1922937e-06 1.3829344e-38
0.62533402 -1.9063356 -7.0929527e-06 1.3829344e-38
0.63401532 -1.9063362 -7.5697899e-06 1.3829344e-38
0.64486653 -1.9063358 -7.2717667e-06 1.3829344e-38
0.65571785 -1.9063356 -7.212162e-06 1.3829344e-38
0.66439915 -1.9063364 -7.8082085e-06 1.3829344e-38
0.67525029 -1.9063359 -7.390976e-06 1.3829344e-38
0.68610156 -1.9063358 -7.2717667e-06 1.3829344e-38
0.69478291 -1.9063365 -7.9274178e-06 1.3829344e-38
0.70563412 -1.9063362 -7.5101852e-06 1.3829344e-38
0.71648538 -1.9063358 -7.3313713e-06 1.3829344e-38
0.72516632 -1.9063356 -7.212162e-06 1.3829344e-38
0.73384774 -1.9063365 -7.9274178e-06 1.3829344e-38
0.74469858 -1.9063355 -6.9141388e-06 1.3829344e-38
0.7555505 -1.9063368 -8.1062317e-06 1.3829344e-38
0.76423109 -1.9063354 -7.0929527e-06 1.3829344e-38
0.77508241 -1.9063355 -6.9936118e-06 1.3829344e-38
0.78593397 -1.9063361 -7.5101852e-06 1.3829344e-38
0.79461527 -1.9063368 -8.1062317e-06 1.3829344e-38
0.80546618 -1.9063355 -7.1128211e-06 1.3829344e-38
0.81631815 -1.906337 -8.4042549e-06 1.3829344e-38
0.82499868 -1.9063358 -7.3313713e-06 1.3829344e-38
0.83367968 -1.9063357 -7.1525574e-06 1.3829344e-38
0.84453124 -1.9063362 -7.5896583e-06 1.3829344e-38
0.8553825 -1.9063361 -7.5697899e-06 1.3829344e-38
0.86406338 -1.9063356 -7.212162e-06 1.3829344e-38
0.87491506 -1.9063363 -7.8678131e-06 1.3829344e-38
0.88576627 -1.9063361 -7.5101852e-06 1.3829344e-38
0.89444673 -1.9063349 -6.4373016e-06 1.3829344e-38
0.90529889 -1.9063364 -7.9075498e-06 1.3829344e-38
0.91615009 -1.9063363 -7.8082085e-06 1.3829344e-38
0.92483103 -1.9063361 -7.5101852e-06 1.3829344e-38
0.93351197 -1.9063358 -7.2717667e-06 1.3829344e-38
0.94436389 -1.9063371 -8.4241228e-06 1.3829344e-38
0.95521438 -1.9063354 -6.8545341e-06 1.3829344e-38
0.96389627 -1.906337 -8.2850456e-06 1.3829344e-38
0.974747 -1.9063357 -7.3115029e-06 1.3829344e-38
0.98559868 -1.9063364 -7.8082085e-06 1.3829344e-38
0.99427962 -1.9063361 -7.5101852e-06 1.3829344e-38
1.0051309 -1.9063359 -7.4307122e-06 1.3829344e-38
1.0159819 -1.9063355 -7.0333481e-06 1.3829344e-38
1.0246634 -1.9063362 -7.7486038e-06 1.3829344e-38
1.0355147 -1.9063362 -7.6293945e-06 1.3829344e-38
1.0463657 -1.9063356 -7.0929527e-06 1.3829344e-38
1.0550473 -1.9063364 -7.7486038e-06 1.3829344e-38
1.0637281 -1.9063361 -7.6889992e-06 1.3829344e-38
1.0745794 -1.9063359 -7.470449e-06 1.3829344e-38
1.085431 -1.9063365 -7.9274178e-06 1.3829344e-38
1.0941119 -1.9063363 -7.6889992e-06 1.3829344e-38
1.1049632 -1.9063362 -7.5499215e-06 1.3829344e-38
1.1158148 -1.9063365 -7.9870224e-06 1.3829344e-38
1.1244951 -1.9063355 -7.0333481e-06 1.3829344e-38
1.135347 -1.9063363 -7.7088671e-06 1.3829344e-38
1.1461974 -1.9063349 -6.377697e-06 1.3829344e-38
1.1548796 -1.9063365 -7.9870224e-06 1.3829344e-38
1.1635605 -1.9063364 -7.7486038e-06 1.3829344e-38
1.1744118 -1.9063362 -7.6691313e-06 1.3829344e-38
1.1852628 -1.9063356 -7.1525574e-06 1.3829344e-38
1.1939449 -1.9063375 -8.7618828e-06 1.3829344e-38
1.2047952 -1.9063357 -7.2320304e-06 1.3829344e-38
1.2156473 -1.9063368 -8.2850456e-06 1.3829344e-38
1.2243283 -1.9063365 -7.9870224e-06 1.3829344e-38
1.2351794 -1.9063364 -8.0267591e-06 1.3829344e-38
1.2460304 -1.9063361 -7.4505806e-06 1.3829344e-38
1.2547121 -1.9063368 -8.1658363e-06 1.3829344e-38
1.2655628 -1.9063359 -7.470449e-06 1.3829344e-38
1.2764143 -1.9063362 -7.5697899e-06 1.3829344e-38
1.2850959 -1.906337 -8.3446503e-06 1.3829344e-38
1.293776 -1.9063356 -7.1525574e-06 1.3829344e-38
1.304628 -1.9063367 -7.9870224e-06 1.3829344e-38
1.3154798 -1.9063371 -8.4042549e-06 1.3829344e-38
1.3241606 -1.9063368 -8.225441e-06 1.3829344e-38
1.3350115 -1.9063362 -7.5101852e-06 1.3829344e-38
1.3458636 -1.9063373 -8.5830688e-06 1.3829344e-38
1.3545437 -1.9063361 -7.4505806e-06 1.3829344e-38
1.3653959 -1.9063368 -8.2651777e-06 1.3829344e-38
1.376246 -1.9063354 -7.0333481e-06 1.3829344e-38
1.3849285 -1.906337 -8.4638596e-06 1.3829344e-38
1.3936086 -1.9063358 -7.390976e-06 1.3829344e-38
1.4044604 -1.9063368 -8.1459684e-06 1.3829344e-38
-1.3615468 -1.8999046 -6.7949295e-06 1.3829344e-38
-1.3555998 -1.896704 -6.5565109e-06 1.3829344e-38
-1.3457649 -1.8960638 -6.508827e-06 1.3829344e-38
